# .PCD v.7 - Point Cloud Data file format
FIELDS x y z rgb imX imY
SIZE 4 4 4 4 4 4
TYPE F F F F F F
COUNT 1 1 1 1 1 1
WIDTH 834
HEIGHT 1
VIEWPOINT 0 0 0 1 0 0 0
POINTS 834
DATA ascii
0.01506464 0.71600002 -0.056492399 6.91288e-39 332 285
0.016320027 0.71600002 -0.056492399 8.2036188e-39 333 285
0.017526319 0.71399999 -0.0563346 9.3074398e-39 334 285
0.018778199 0.71399999 -0.0563346 9.768418e-39 335 285
0.020030079 0.71399999 -0.0563346 9.5865252e-39 336 285
0.021252153 0.713 -0.056255698 9.6787208e-39 337 285
0.022502279 0.713 -0.056255698 9.9542189e-39 338 285
0.023852346 0.71600002 -0.056492399 9.6772719e-39 339 285
0.0251428 0.71700001 -0.056571297 8.3886911e-39 340 285
0.026584039 0.722 -0.056965802 6.0838017e-39 341 285
0.02788852 0.72299999 -0.057044696 6.4493613e-39 342 285
0.029236834 0.72500002 -0.057202499 6.4493613e-39 343 285
0.030508002 0.72500002 -0.057202499 6.3561035e-39 344 285
0.03186683 0.727 -0.057360299 6.2639078e-39 345 285
0.033141505 0.727 -0.057360299 6.0805956e-39 346 285
0.034463517 0.72799999 -0.057439197 6.1727912e-39 347 285
0.035739943 0.72799999 -0.057439197 5.713255e-39 348 285
0.037016369 0.72799999 -0.057439197 5.8054506e-39 349 285
0.038292799 0.72799999 -0.057439197 6.2657127e-39 350 285
0.039514873 0.727 -0.057360299 6.450104e-39 351 285
0.040789545 0.727 -0.057360299 6.6341379e-39 352 285
0.041948501 0.72500002 -0.057202499 6.8185306e-39 353 285
0.043219667 0.72500002 -0.057202499 6.9110919e-39 354 285
0.044490833 0.72500002 -0.057202499 7.0958419e-39 355 285
0.04563576 0.72299999 -0.057044696 6.6370288e-39 356 285
0.046903417 0.72299999 -0.057044696 6.9136157e-39 357 285
0.048171077 0.72299999 -0.057044696 6.9132625e-39 358 285
0.049438741 0.72299999 -0.057044696 7.0976538e-39 359 285
0.050706398 0.72299999 -0.057044696 7.0976566e-39 360 285
0.051902171 0.722 -0.056965802 7.2820479e-39 361 285
0.053168077 0.722 -0.056965802 7.4675153e-39 362 285
0.054433983 0.722 -0.056965802 7.5597109e-39 363 285
0.055699892 0.722 -0.056965802 8.2036314e-39 364 285
0.057044696 0.72299999 -0.057044696 8.4805784e-39 365 285
-0.017526319 0.71399999 -0.057586476 2.0517417e-38 306 286
-0.016274439 0.71399999 -0.057586476 2.005644e-38 307 286
-0.015022559 0.71399999 -0.057586476 1.9407474e-38 308 286
-0.013751393 0.713 -0.057505824 1.903905e-38 309 286
-0.012501267 0.713 -0.057505824 1.2796054e-38 310 286
-0.011251139 0.713 -0.057505824 1.1781543e-38 311 286
-0.010001013 0.713 -0.057505824 9.3934795e-39 312 286
-0.0087508867 0.713 -0.057505824 9.3934795e-39 313 286
-0.0075007593 0.713 -0.057505824 8.9361181e-39 314 286
-0.0062506334 0.713 -0.057505824 8.9361181e-39 315 286
-0.0050005065 0.713 -0.057505824 8.7521024e-39 316 286
-0.0037503797 0.713 -0.057505824 8.9361336e-39 317 286
-0.0025002533 0.713 -0.057505824 8.9361364e-39 318 286
-0.0012501266 0.713 -0.057505824 9.213082e-39 319 286
0 0.71100003 -0.057344519 9.0301327e-39 320 286
0.00124662 0.71100003 -0.057344519 9.2145253e-39 321 286
0.0024932399 0.71100003 -0.057344519 9.2155973e-39 322 286
0.0037398601 0.71100003 -0.057344519 9.3999886e-39 323 286
0.0049864799 0.71100003 -0.057344519 9.4010634e-39 324 286
0.0062330998 0.71100003 -0.057344519 9.4932604e-39 325 286
0.0074691991 0.70999998 -0.057263866 9.3106642e-39 326 286
0.0087140659 0.70999998 -0.057263866 9.4028598e-39 327 286
0.0099589331 0.70999998 -0.057263866 9.8631149e-39 328 286
0.011203799 0.70999998 -0.057263866 9.6787237e-39 329 286
0.012448666 0.70999998 -0.057263866 9.4882213e-39 330 286
0.013693533 0.70999998 -0.057263866 8.1052869e-39 331 286
0.014959441 0.71100003 -0.057344519 6.0841885e-39 332 286
0.01620606 0.71100003 -0.057344519 5.6232104e-39 333 286
0.01745268 0.71100003 -0.057344519 7.4682019e-39 334 286
0.0186993 0.71100003 -0.057344519 8.3897995e-39 335 286
0.01994592 0.71100003 -0.057344519 9.6754895e-39 336 286
0.021192541 0.71100003 -0.057344519 1.0043913e-38 337 286
0.022439159 0.71100003 -0.057344519 9.861673e-39 338 286
0.023752406 0.713 -0.057505824 9.676923e-39 339 286
0.025002534 0.713 -0.057505824 9.3981753e-39 340 286
0.02647358 0.71899998 -0.057989739 7.36987e-39 341 286
0.02788852 0.72299999 -0.058312356 7.1833278e-39 342 286
0.029236834 0.72500002 -0.058473669 7.0911307e-39 343 286
0.030592158 0.727 -0.058634974 6.2638952e-39 344 286
0.03186683 0.727 -0.058634974 6.3560908e-39 345 286
0.039514873 0.727 -0.058634974 6.0831165e-39 351 286
0.040789545 0.727 -0.058634974 6.0849144e-39 352 286
0.042064216 0.727 -0.058634974 6.3611425e-39 353 286
0.043219667 0.72500002 -0.058473669 6.0856374e-39 354 286
0.044490833 0.72500002 -0.058473669 6.1778331e-39 355 286
0.045761999 0.72500002 -0.058473669 5.9019693e-39 356 286
0.047033165 0.72500002 -0.058473669 5.9019693e-39 357 286
0.048171077 0.72299999 -0.058312356 6.3607922e-39 358 286
0.049438741 0.72299999 -0.058312356 6.4529878e-39 359 286
0.050706398 0.72299999 -0.058312356 6.5444646e-39 360 286
0.051902171 0.722 -0.058231708 7.0054427e-39 361 286
0.053168077 0.722 -0.058231708 7.1905529e-39 362 286
0.054433983 0.722 -0.058231708 7.2831072e-39 363 286
0.055777039 0.72299999 -0.058312356 8.2014678e-39 364 286
0.057044696 0.72299999 -0.058312356 8.7546416e-39 365 286
0.058312356 0.72299999 -0.058312356 9.1252122e-39 366 286
-0.01745268 0.71100003 -0.058591139 2.0515263e-38 306 287
-0.01620606 0.71100003 -0.058591139 2.0054644e-38 307 287
-0.014959441 0.71100003 -0.058591139 1.720631e-38 308 287
-0.013693533 0.70999998 -0.058508728 1.6376189e-38 309 287
-0.012448666 0.70999998 -0.058508728 1.0956845e-38 310 287
-0.011203799 0.70999998 -0.058508728 1.0403671e-38 311 287
-0.0099729598 0.71100003 -0.058591139 8.6602585e-39 312 287
-0.0087263398 0.71100003 -0.058591139 8.1070861e-39 313 287
-0.0075007593 0.713 -0.058755953 7.4642531e-39 314 287
-0.0062330998 0.71100003 -0.058591139 7.3720561e-39 315 287
-0.0049864799 0.71100003 -0.058591139 7.1883907e-39 316 287
-0.0037398601 0.71100003 -0.058591139 7.3727833e-39 317 287
-0.0024932399 0.71100003 -0.058591139 7.7404897e-39 318 287
-0.00124662 0.71100003 -0.058591139 8.2014678e-39 319 287
0 0.71100003 -0.058591139 8.2032657e-39 320 287
0.00124662 0.71100003 -0.058591139 8.4794938e-39 321 287
0.0024897333 0.70999998 -0.058508728 8.389452e-39 322 287
0.0037345996 0.70999998 -0.058508728 8.4816476e-39 323 287
0.0049794666 0.70999998 -0.058508728 8.2983326e-39 324 287
0.0062243328 0.70999998 -0.058508728 8.4823637e-39 325 287
0.0074691991 0.70999998 -0.058508728 8.6674612e-39 326 287
0.008689519 0.708 -0.058343921 8.8518539e-39 327 287
0.0099308798 0.708 -0.058343921 9.5865252e-39 328 287
0.011140679 0.70599997 -0.058179103 9.7712752e-39 329 287
0.012378532 0.70599997 -0.058179103 1.0045333e-38 330 287
0.013616386 0.70599997 -0.058179103 9.2159322e-39 331 287
0.014854239 0.70599997 -0.058179103 7.6486051e-39 332 287
0.016114887 0.70700002 -0.05826151 5.9890852e-39 333 287
0.017379038 0.708 -0.058343921 7.2802108e-39 334 287
0.018672999 0.70999998 -0.058508728 8.0177758e-39 335 287
0.019917866 0.70999998 -0.058508728 8.2039817e-39 336 287
0.021162732 0.70999998 -0.058508728 8.6649599e-39 337 287
0.022407599 0.70999998 -0.058508728 9.861317e-39 338 287
0.023652466 0.70999998 -0.058508728 9.7691214e-39 339 287
0.024897331 0.70999998 -0.058508728 9.8616576e-39 340 287
0.026142199 0.70999998 -0.058508728 8.1095805e-39 341 287
0.027965667 0.72500002 -0.059744831 7.4606181e-39 342 287
0.043219667 0.72500002 -0.059744831 8.5702307e-39 354 287
0.044490833 0.72500002 -0.059744831 8.3854807e-39 355 287
0.049438741 0.72299999 -0.059580017 7.557155e-39 359 287
0.050706398 0.72299999 -0.059580017 7.3720406e-39 360 287
0.051974058 0.72299999 -0.059580017 7.3720406e-39 361 287
0.053168077 0.722 -0.059497613 7.4642503e-39 362 287
0.054433983 0.722 -0.059497613 7.6490003e-39 363 287
0.055777039 0.72299999 -0.059580017 7.3749497e-39 364 287
0.057044696 0.72299999 -0.059580017 7.8359279e-39 365 287
0.058312356 0.72299999 -0.059580017 7.7462476e-39 366 287
-0.017354494 0.70700002 -0.059501119 2.005574e-38 306 288
-0.016114887 0.70700002 -0.059501119 1.9778793e-38 307 288
-0.01487528 0.70700002 -0.059501119 1.4816795e-38 308 288
-0.013654959 0.708 -0.059585281 1.3526056e-38 309 288
-0.0124136 0.708 -0.059585281 8.4740498e-39 310 288
-0.01117224 0.708 -0.059585281 8.1971042e-39 311 288
-0.0099589331 0.70999998 -0.059753593 8.0134542e-39 312 288
-0.0087140659 0.70999998 -0.059753593 7.7372274e-39 313 288
-0.0074797203 0.71100003 -0.059837762 7.0940216e-39 314 288
-0.0062330998 0.71100003 -0.059837762 7.1865774e-39 315 288
-0.0049864799 0.71100003 -0.059837762 7.3695337e-39 316 288
-0.0037398601 0.71100003 -0.059837762 7.5542837e-39 317 288
-0.0024932399 0.71100003 -0.059837762 7.6468451e-39 318 288
-0.00124662 0.71100003 -0.059837762 8.1078232e-39 319 288
0 0.71100003 -0.059837762 7.9259571e-39 320 288
0.00124662 0.71100003 -0.059837762 8.2943795e-39 321 288
0.0024897333 0.70999998 -0.059753593 8.1117889e-39 322 288
0.0037345996 0.70999998 -0.059753593 8.1117889e-39 323 288
0.0049794666 0.70999998 -0.059753593 8.3876527e-39 324 288
0.0062243328 0.70999998 -0.059753593 8.4798498e-39 325 288
0.0074691991 0.70999998 -0.059753593 8.7567898e-39 326 288
0.008689519 0.708 -0.059585281 8.941181e-39 327 288
0.0099168532 0.70700002 -0.059501119 9.3103111e-39 328 288
0.011140679 0.70599997 -0.059416957 9.3103111e-39 329 288
0.012378532 0.70599997 -0.059416957 9.4943324e-39 330 288
0.013616386 0.70599997 -0.059416957 9.6787237e-39 331 288
0.014854239 0.70599997 -0.059416957 1.0229011e-38 332 288
0.016092092 0.70599997 -0.059416957 9.0304676e-39 333 288
0.017329946 0.70599997 -0.059416957 7.1923129e-39 334 288
0.018594101 0.70700002 -0.059501119 6.5469435e-39 335 288
0.01986176 0.708 -0.059585281 7.7404644e-39 336 288
0.021073313 0.70700002 -0.059501119 8.4780295e-39 337 288
0.022312919 0.70700002 -0.059501119 8.9408027e-39 338 288
0.023552528 0.70700002 -0.059501119 9.3099453e-39 339 288
0.024792133 0.70700002 -0.059501119 9.401764e-39 340 288
0.02603174 0.70700002 -0.059501119 8.7563946e-39 341 288
-0.017329946 0.70599997 -0.060654808 1.9320341e-38 306 289
-0.016092092 0.70599997 -0.060654808 1.8767169e-38 307 289
-0.014854239 0.70599997 -0.060654808 1.2978297e-38 308 289
-0.013616386 0.70599997 -0.060654808 1.1687558e-38 309 289
-0.012396066 0.70700002 -0.060740728 8.1978356e-39 310 289
-0.011156459 0.70700002 -0.060740728 8.0134444e-39 311 289
-0.0099308798 0.708 -0.060826641 7.4613664e-39 312 289
-0.0087140659 0.70999998 -0.060998458 7.1844194e-39 313 289
-0.0074797203 0.71100003 -0.061084379 6.8174347e-39 314 289
-0.0062330998 0.71100003 -0.061084379 6.8174347e-39 315 289
-0.0049864799 0.71100003 -0.061084379 6.6337694e-39 316 289
-0.0037398601 0.71100003 -0.061084379 6.8181606e-39 317 289
-0.0024932399 0.71100003 -0.061084379 6.7281328e-39 318 289
-0.00124662 0.71100003 -0.061084379 7.0969139e-39 319 289
0 0.71100003 -0.061084379 7.1905585e-39 320 289
0.00124662 0.71100003 -0.061084379 7.2827541e-39 321 289
0.0024932399 0.71100003 -0.061084379 7.1909214e-39 322 289
0.0037398601 0.71100003 -0.061084379 7.0068903e-39 323 289
0.0049794666 0.70999998 -0.060998458 7.3738679e-39 324 289
0.0062243328 0.70999998 -0.060998458 7.1898368e-39 325 289
0.0074481601 0.708 -0.060826641 7.3781741e-39 326 289
0.008677247 0.70700002 -0.060740728 7.9309892e-39 327 289
0.0099028256 0.70599997 -0.060654808 8.758938e-39 328 289
0.011109119 0.704 -0.060482983 8.9429705e-39 329 289
0.012343466 0.704 -0.060482983 9.4939765e-39 330 289
0.013558527 0.70300001 -0.06039707 9.5861721e-39 331 289
0.014791119 0.70300001 -0.06039707 9.8620233e-39 332 289
0.016023712 0.70300001 -0.06039707 9.4932408e-39 333 289
0.017256306 0.70300001 -0.06039707 9.0318899e-39 334 289
0.018488899 0.70300001 -0.06039707 8.2021292e-39 335 289
0.019749546 0.704 -0.060482983 7.4631419e-39 336 289
0.020983893 0.704 -0.060482983 7.8315642e-39 337 289
0.022218239 0.704 -0.060482983 7.284161e-39 338 289
0.023452586 0.704 -0.060482983 7.9295304e-39 339 289
0.024686933 0.704 -0.060482983 8.5734495e-39 340 289
0.02592128 0.704 -0.060482983 8.7578407e-39 341 289
0.05768466 0.69999999 -0.060139328 9.1255653e-39 367 289
-0.017280852 0.704 -0.061717331 1.8676418e-38 306 290
-0.016046507 0.704 -0.061717331 1.8123244e-38 307 290
-0.014812159 0.704 -0.061717331 1.187484e-38 308 290
-0.013577812 0.704 -0.061717331 1.0491904e-38 309 290
-0.012378532 0.70599997 -0.061892662 7.4620727e-39 310 290
-0.011140679 0.70599997 -0.061892662 7.3695169e-39 311 290
-0.0099308798 0.708 -0.062068 7.1851284e-39 312 290
-0.008689519 0.708 -0.062068 7.0925741e-39 313 290
-0.0074691991 0.70999998 -0.062243331 6.8170662e-39 314 290
-0.0062243328 0.70999998 -0.062243331 6.7248706e-39 315 290
-0.0049794666 0.70999998 -0.062243331 6.541924e-39 316 290
-0.0037398601 0.71100003 -0.062331002 6.541924e-39 317 290
-0.0024932399 0.71100003 -0.062331002 6.4508228e-39 318 290
-0.00124662 0.71100003 -0.062331002 6.7274111e-39 319 290
0 0.71100003 -0.062331002 6.8199809e-39 320 290
0.00124662 0.71100003 -0.062331002 6.8199809e-39 321 290
0.0024932399 0.71100003 -0.062331002 6.5441199e-39 322 290
0.0037398601 0.71100003 -0.062331002 6.4515655e-39 323 290
0.0049794666 0.70999998 -0.062243331 6.3604447e-39 324 290
0.0062243328 0.70999998 -0.062243331 6.2678903e-39 325 290
0.0074481601 0.708 -0.062068 6.1799995e-39 326 290
0.008677247 0.70700002 -0.061980337 7.2859883e-39 327 290
0.0098747732 0.704 -0.061717331 8.2986857e-39 328 290
0.01109334 0.70300001 -0.061629668 8.4827168e-39 329 290
0.012325933 0.70300001 -0.061629668 8.8500546e-39 330 290
0.013519952 0.70099998 -0.06145433 9.034806e-39 331 290
0.014749039 0.70099998 -0.06145433 9.3103013e-39 332 290
0.015978126 0.70099998 -0.06145433 9.3103013e-39 333 290
0.017207211 0.70099998 -0.06145433 9.4943128e-39 334 290
0.018436298 0.70099998 -0.06145433 9.2177259e-39 335 290
0.019665385 0.70099998 -0.06145433 8.9368258e-39 336 290
0.020954086 0.70300001 -0.061629668 8.0145108e-39 337 290
0.02218668 0.70300001 -0.061629668 6.9125016e-39 338 290
0.023352645 0.70099998 -0.06145433 7.3738399e-39 339 290
0.024581732 0.70099998 -0.06145433 7.8348265e-39 340 290
0.025773998 0.69999999 -0.061366666 8.5723929e-39 341 290
0.027001332 0.69999999 -0.061366666 9.1259156e-39 342 290
0.028228667 0.69999999 -0.061366666 9.310667e-39 343 290
0.029455997 0.69999999 -0.061366666 9.9542371e-39 344 290
0.030595668 0.69800001 -0.061191335 1.0691802e-38 345 290
0.031819493 0.69800001 -0.061191335 1.2074385e-38 346 290
0.033043321 0.69800001 -0.061191335 1.38261e-38 347 290
0.034267146 0.69800001 -0.061191335 1.474554e-38 348 290
0.035490975 0.69800001 -0.061191335 1.5298714e-38 349 290
0.05768466 0.69999999 -0.061366666 1.0043916e-38 367 290
0.058911994 0.69999999 -0.061366666 9.6780174e-39 368 290
0.060139328 0.69999999 -0.061366666 9.5858218e-39 369 290
0.061366666 0.69999999 -0.061366666 7.7429686e-39 370 290
-0.017280852 0.704 -0.062951677 1.8307275e-38 306 291
-0.016023712 0.70300001 -0.062862262 1.775446e-38 307 291
-0.014791119 0.70300001 -0.062862262 1.1231271e-38 308 291
-0.013577812 0.704 -0.062951677 9.8483368e-39 309 291
-0.012343466 0.704 -0.062951677 6.6351889e-39 310 291
-0.011140679 0.70599997 -0.063130513 6.6351889e-39 311 291
-0.0099308798 0.708 -0.063309364 6.6337511e-39 312 291
-0.008689519 0.708 -0.063309364 6.5415555e-39 313 291
-0.0074691991 0.70999998 -0.063488193 6.4493557e-39 314 291
-0.0062243328 0.70999998 -0.063488193 6.35716e-39 315 291
-0.0049794666 0.70999998 -0.063488193 6.081299e-39 316 291
-0.0037398601 0.71100003 -0.063577622 6.1734947e-39 317 291
-0.0024932399 0.71100003 -0.063577622 6.3571797e-39 318 291
-0.00124662 0.71100003 -0.063577622 6.3571797e-39 319 291
0 0.713 -0.063756458 6.5405045e-39 320 291
0.0012501266 0.713 -0.063756458 6.6327002e-39 321 291
0.0024932399 0.71100003 -0.063577622 6.3575552e-39 322 291
0.0037398601 0.71100003 -0.063577622 6.3575552e-39 323 291
0.0049794666 0.70999998 -0.063488193 5.8998141e-39 324 291
0.0062243328 0.70999998 -0.063488193 6.084564e-39 325 291
0.0074376399 0.70700002 -0.063219935 6.3607922e-39 326 291
0.0086649731 0.70599997 -0.063130513 6.6377378e-39 327 291
0.0098607466 0.70300001 -0.062862262 8.0181499e-39 328 291
0.011061779 0.70099998 -0.062683418 8.3869311e-39 329 291
0.012290866 0.70099998 -0.062683418 8.8471847e-39 330 291
0.013500666 0.69999999 -0.062593997 9.2159659e-39 331 291
0.014727999 0.69999999 -0.062593997 9.4003445e-39 332 291
0.015909746 0.69800001 -0.062415157 9.6765727e-39 333 291
0.017133573 0.69800001 -0.062415157 9.7694717e-39 334 291
0.0183574 0.69800001 -0.062415157 9.6772747e-39 335 291
0.019525118 0.69599998 -0.062236317 9.6751111e-39 336 291
0.020745439 0.69599998 -0.062236317 9.1219373e-39 337 291
0.02202888 0.69800001 -0.062415157 8.384022e-39 338 291
0.023252707 0.69800001 -0.062415157 7.7386526e-39 339 291
0.024476532 0.69800001 -0.062415157 6.8174347e-39 340 291
0.025700359 0.69800001 -0.062415157 7.6471954e-39 341 291
0.026924185 0.69800001 -0.062415157 7.8373446e-39 342 291
0.028148014 0.69800001 -0.062415157 8.482714e-39 343 291
0.029371841 0.69800001 -0.062415157 8.9415314e-39 344 291
0.030595668 0.69800001 -0.062415157 9.4947051e-39 345 291
0.031819493 0.69800001 -0.062415157 1.0325545e-38 346 291
0.033043321 0.69800001 -0.062415157 1.1616284e-38 347 291
0.034218054 0.69700003 -0.062325738 1.2995618e-38 348 291
0.035389278 0.69599998 -0.062236317 1.400977e-38 349 291
0.036609598 0.69599998 -0.062236317 1.5574209e-38 350 291
0.053539783 0.69400001 -0.06205748 1.382141e-38 364 291
0.054756597 0.69400001 -0.06205748 1.2438476e-38 365 291
0.056215372 0.69700003 -0.062325738 1.0962626e-38 366 291
0.05743745 0.69700003 -0.062325738 1.0962626e-38 367 291
0.058743682 0.69800001 -0.062415157 9.8602451e-39 368 291
0.059967503 0.69800001 -0.062415157 9.6758524e-39 369 291
0.061191335 0.69800001 -0.062415157 8.4769365e-39 370 291
0.062593997 0.69999999 -0.062593997 6.1720471e-39 371 291
-0.015978126 0.70099998 -0.063912503 1.7477151e-38 307 292
-0.014749039 0.70099998 -0.063912503 1.1414581e-38 308 292
-0.013558527 0.70300001 -0.064094849 9.847255e-39 309 292
-0.012343466 0.704 -0.064186029 6.7270216e-39 310 292
-0.011140679 0.70599997 -0.064368367 6.6348259e-39 311 292
-0.0099308798 0.708 -0.06455072 6.8181382e-39 312 292
-0.0087140659 0.70999998 -0.064733058 6.4493557e-39 313 292
-0.0074797203 0.71100003 -0.064824238 6.356444e-39 314 292
-0.0062330998 0.71100003 -0.064824238 6.2642483e-39 315 292
-0.0049864799 0.71100003 -0.064824238 5.8040031e-39 316 292
-0.0037398601 0.71100003 -0.064824238 5.8040031e-39 317 292
-0.0025002533 0.713 -0.065006584 5.5281477e-39 318 292
-0.0012501266 0.713 -0.065006584 5.5281477e-39 319 292
0 0.713 -0.065006584 5.8033052e-39 320 292
0.0012501266 0.713 -0.065006584 5.8955009e-39 321 292
0.0024932399 0.71100003 -0.064824238 5.8051003e-39 322 292
0.0037398601 0.71100003 -0.064824238 5.8972959e-39 323 292
0.0049794666 0.70999998 -0.064733058 5.8980162e-39 324 292
0.0062243328 0.70999998 -0.064733058 6.0827662e-39 325 292
0.0074376399 0.70700002 -0.064459547 5.9927342e-39 326 292
0.0086649731 0.70599997 -0.064368367 6.2693224e-39 327 292
0.0098607466 0.70300001 -0.064094849 6.7303034e-39 328 292
0.011045999 0.69999999 -0.063821331 7.283117e-39 329 292
0.012273333 0.69999999 -0.063821331 8.0188842e-39 330 292
0.013462093 0.69800001 -0.063638985 8.2958312e-39 331 292
0.01466488 0.69700003 -0.06354782 8.6649571e-39 332 292
0.015886955 0.69700003 -0.06354782 8.8497071e-39 333 292
0.017084479 0.69599998 -0.063456632 9.3099453e-39 334 292
0.0182522 0.69400001 -0.063274294 9.3099453e-39 335 292
0.019469013 0.69400001 -0.063274294 1.0044982e-38 336 292
0.020745439 0.69599998 -0.063456632 1.0044982e-38 337 292
0.021965759 0.69599998 -0.063456632 9.6754614e-39 338 292
0.023186078 0.69599998 -0.063456632 7.9237445e-39 339 292
0.0244064 0.69599998 -0.063456632 6.6297855e-39 340 292
0.025663542 0.69700003 -0.06354782 7.0907622e-39 341 292
0.026885614 0.69700003 -0.06354782 5.5339056e-39 342 292
0.028148014 0.69800001 -0.063638985 6.8246444e-39 343 292
0.029371841 0.69800001 -0.063638985 8.1132182e-39 344 292
0.030595668 0.69800001 -0.063638985 8.666392e-39 345 292
0.031819493 0.69800001 -0.063638985 9.3103167e-39 346 292
0.033043321 0.69800001 -0.063638985 9.5869036e-39 347 292
0.034218054 0.69700003 -0.06354782 1.0691446e-38 348 292
0.035389278 0.69599998 -0.063456632 1.1705958e-38 349 292
0.036504399 0.69400001 -0.063274294 1.3178563e-38 350 292
0.037721213 0.69400001 -0.063274294 1.4192717e-38 351 292
0.038938027 0.69400001 -0.063274294 1.5940817e-38 352 292
0.040154841 0.69400001 -0.063274294 1.6493991e-38 353 292
0.041312039 0.69300002 -0.063183114 1.7231543e-38 354 292
0.042527102 0.69300002 -0.063183114 1.7507771e-38 355 292
0.043742158 0.69300002 -0.063183114 1.759997e-38 356 292
0.049817458 0.69300002 -0.063183114 1.7139345e-38 361 292
0.051032521 0.69300002 -0.063183114 1.5851124e-38 362 292
0.05224758 0.69300002 -0.063183114 1.4744776e-38 363 292
0.053539783 0.69400001 -0.063274294 1.2352034e-38 364 292
0.054756597 0.69400001 -0.063274294 1.0784348e-38 365 292
0.056134716 0.69599998 -0.063456632 1.1239573e-38 366 292
0.05743745 0.69700003 -0.06354782 1.0594203e-38 367 292
0.05865952 0.69700003 -0.06354782 9.7666033e-39 368 292
0.059967503 0.69800001 -0.063638985 9.3978222e-39 369 292
0.061191335 0.69800001 -0.063638985 7.6496981e-39 370 292
0.062415157 0.69800001 -0.063638985 5.6213943e-39 371 292
0.063638985 0.69800001 -0.063638985 1.345728e-38 372 292
-0.015978126 0.70099998 -0.065141588 1.7937406e-38 307 293
-0.014749039 0.70099998 -0.065141588 1.178264e-38 308 293
-0.013558527 0.70300001 -0.065327443 1.0215314e-38 309 293
-0.012343466 0.704 -0.065420374 7.4609867e-39 310 293
-0.011140679 0.70599997 -0.065606222 7.368791e-39 311 293
-0.0099589331 0.70999998 -0.065977924 6.8174221e-39 312 293
-0.0087263398 0.71100003 -0.066070862 6.2642483e-39 313 293
-0.0074797203 0.71100003 -0.066070862 5.617444e-39 314 293
-0.0062330998 0.71100003 -0.066070862 5.2490202e-39 315 293
-0.0049864799 0.71100003 -0.066070862 4.6050998e-39 316 293
0.0037398601 0.71100003 -0.066070862 5.5274274e-39 323 293
0.0049794666 0.70999998 -0.065977924 5.7125389e-39 324 293
0.0062243328 0.70999998 -0.065977924 6.1735171e-39 325 293
0.0074376399 0.70700002 -0.065699153 5.9927187e-39 326 293
0.0086649731 0.70599997 -0.065606222 6.3611425e-39 327 293
0.0098326923 0.70099998 -0.065141588 7.188741e-39 328 293
0.011045999 0.69999999 -0.065048665 7.280938e-39 329 293
0.012238266 0.69800001 -0.06486281 8.1078204e-39 330 293
0.013442807 0.69700003 -0.064769886 8.4769631e-39 331 293
0.01460176 0.69400001 -0.064491108 8.753187e-39 332 293
0.015818574 0.69400001 -0.064491108 9.2145253e-39 333 293
0.017035386 0.69400001 -0.064491108 9.3088677e-39 334 293
0.018225901 0.69300002 -0.064398177 9.4932604e-39 335 293
0.01944096 0.69300002 -0.064398177 9.7684054e-39 336 293
0.020685827 0.69400001 -0.064491108 1.0044632e-38 337 293
0.021902639 0.69400001 -0.064491108 1.0229011e-38 338 293
0.023119451 0.69400001 -0.064491108 9.8598681e-39 339 293
0.0244064 0.69599998 -0.064676955 9.2091009e-39 340 293
0.025626717 0.69599998 -0.064676955 7.7336121e-39 341 293
0.026847038 0.69599998 -0.064676955 3.8754408e-39 342 293
0.028107686 0.69700003 -0.064769886 3.3222671e-39 343 293
0.029371841 0.69800001 -0.06486281 5.1647559e-39 344 293
0.030595668 0.69800001 -0.06486281 6.3629404e-39 345 293
0.031819493 0.69800001 -0.06486281 7.7415588e-39 346 293
0.03299598 0.69700003 -0.064769886 8.2947326e-39 347 293
0.034218054 0.69700003 -0.064769886 8.4801959e-39 348 293
0.035287585 0.69400001 -0.064491108 8.2039691e-39 349 293
0.036504399 0.69400001 -0.064491108 8.6627795e-39 350 293
0.037721213 0.69400001 -0.064491108 8.6627795e-39 351 293
0.038938027 0.69400001 -0.064491108 8.5712817e-39 352 293
0.040154841 0.69400001 -0.064491108 8.6634773e-39 353 293
0.041312039 0.69300002 -0.064398177 9.861652e-39 354 293
0.042527102 0.69300002 -0.064398177 1.0783607e-38 355 293
0.043742158 0.69300002 -0.064398177 1.1517585e-38 356 293
0.044957221 0.69300002 -0.064398177 1.1886008e-38 357 293
0.04617228 0.69300002 -0.064398177 1.2162948e-38 358 293
0.047387339 0.69300002 -0.064398177 1.2070753e-38 359 293
0.048602402 0.69300002 -0.064398177 1.1978907e-38 360 293
0.049817458 0.69300002 -0.064398177 1.1425734e-38 361 293
0.051032521 0.69300002 -0.064398177 1.1148076e-38 362 293
0.05224758 0.69300002 -0.064398177 1.0502707e-38 363 293
0.053539783 0.69400001 -0.064491108 9.2145043e-39 364 293
0.054756597 0.69400001 -0.064491108 9.0301144e-39 365 293
0.056134716 0.69599998 -0.064676955 9.4871395e-39 366 293
0.05743745 0.69700003 -0.064769886 9.1187157e-39 367 293
0.05865952 0.69700003 -0.064769886 9.1190829e-39 368 293
0.059967503 0.69800001 -0.06486281 8.8428547e-39 369 293
0.061191335 0.69800001 -0.06486281 7.5531823e-39 370 293
0.062415157 0.69800001 -0.06486281 6.2624435e-39 371 293
0.063821331 0.69999999 -0.065048665 1.3366163e-38 372 293
-0.016023712 0.70300001 -0.066560037 1.8215067e-38 307 294
-0.014791119 0.70300001 -0.066560037 1.2150698e-38 308 294
-0.013558527 0.70300001 -0.066560037 1.0491536e-38 309 294
-0.012396066 0.70700002 -0.066938758 8.1967412e-39 310 294
-0.01117224 0.708 -0.067033432 7.9197942e-39 311 294
0.0074376399 0.70700002 -0.066938758 6.6344854e-39 326 294
0.0086649731 0.70599997 -0.066844068 7.0036281e-39 327 294
0.0098326923 0.70099998 -0.066370681 6.8206815e-39 328 294
0.011045999 0.69999999 -0.066275999 6.9128772e-39 329 294
0.012220734 0.69700003 -0.06599196 6.9125297e-39 330 294
0.013384946 0.69400001 -0.065707922 7.2809534e-39 331 294
0.01460176 0.69400001 -0.065707922 7.4653503e-39 332 294
0.015795778 0.69300002 -0.06561324 7.7415771e-39 333 294
0.01701084 0.69300002 -0.06561324 7.9291955e-39 334 294
0.018225901 0.69300002 -0.06561324 8.2057838e-39 335 294
0.019384852 0.69099998 -0.065423876 8.7578618e-39 336 294
0.020596405 0.69099998 -0.065423876 8.942253e-39 337 294
0.021807959 0.69099998 -0.065423876 9.5854532e-39 338 294
0.02308614 0.69300002 -0.06561324 9.6780076e-39 339 294
0.024301201 0.69300002 -0.06561324 1.0227211e-38 340 294
0.02551626 0.69300002 -0.06561324 8.659527e-39 341 294
0.026847038 0.69599998 -0.065897278 6.7248509e-39 342 294
0.028107686 0.69700003 -0.06599196 4.973134e-39 343 294
0.029371841 0.69800001 -0.066086642 4.4228665e-39 344 294
0.030595668 0.69800001 -0.066086642 5.6214097e-39 345 294
0.031819493 0.69800001 -0.066086642 5.715804e-39 346 294
0.03299598 0.69700003 -0.06599196 6.1764234e-39 347 294
0.034218054 0.69700003 -0.06599196 7.4649944e-39 348 294
0.035287585 0.69400001 -0.065707922 7.9259725e-39 349 294
0.036504399 0.69400001 -0.065707922 8.018859e-39 350 294
0.037721213 0.69400001 -0.065707922 8.018859e-39 351 294
0.038938027 0.69400001 -0.065707922 7.9266592e-39 352 294
0.040154841 0.69400001 -0.065707922 7.8344635e-39 353 294
0.041312039 0.69300002 -0.06561324 8.1092554e-39 354 294
0.042527102 0.69300002 -0.06561324 8.016701e-39 355 294
0.043742158 0.69300002 -0.06561324 8.3844115e-39 356 294
0.044957221 0.69300002 -0.06561324 8.7531926e-39 357 294
0.04617228 0.69300002 -0.06561324 9.0279691e-39 358 294
0.047387339 0.69300002 -0.06561324 9.1201647e-39 359 294
0.048602402 0.69300002 -0.06561324 9.3041804e-39 360 294
0.049817458 0.69300002 -0.06561324 9.1197891e-39 361 294
0.051032521 0.69300002 -0.06561324 8.9361181e-39 362 294
0.05224758 0.69300002 -0.06561324 8.7517255e-39 363 294
0.053539783 0.69400001 -0.065707922 8.476233e-39 364 294
0.054756597 0.69400001 -0.065707922 8.476233e-39 365 294
0.056134716 0.69599998 -0.065897278 8.1085463e-39 366 294
0.05743745 0.69700003 -0.06599196 7.8319594e-39 367 294
0.05865952 0.69700003 -0.06599196 8.1067484e-39 368 294
0.05988159 0.69700003 -0.06599196 7.8301601e-39 369 294
0.061191335 0.69800001 -0.066086642 6.8195703e-39 370 294
0.062415157 0.69800001 -0.066086642 6.7273747e-39 371 294
0.063821331 0.69999999 -0.066275999 1.4838414e-38 372 294
-0.015659019 0.68699998 -0.066249698 1.830652e-38 307 295
0.0086649731 0.70599997 -0.06808193 7.1869277e-39 327 295
0.0098607466 0.70300001 -0.067792632 7.0968957e-39 328 295
0.011045999 0.69999999 -0.067503333 7.1890913e-39 329 295
0.0122032 0.69599998 -0.067117594 7.3720505e-39 330 295
0.013384946 0.69400001 -0.066924736 7.2798548e-39 331 295
0.014580719 0.69300002 -0.066828303 7.4635328e-39 332 295
0.015795778 0.69300002 -0.066828303 7.2791416e-39 333 295
0.016961746 0.69099998 -0.06663543 7.2834548e-39 334 295
0.0181733 0.69099998 -0.06663543 7.9288242e-39 335 295
0.019356798 0.69 -0.066538997 8.5720286e-39 336 295
0.020506985 0.68800002 -0.066346131 9.032648e-39 337 295
0.021713281 0.68800002 -0.066346131 8.9418873e-39 338 295
0.022919573 0.68800002 -0.066346131 9.1259184e-39 339 295
0.024125867 0.68800002 -0.066346131 9.5840071e-39 340 295
0.02533216 0.68800002 -0.066346131 9.6762027e-39 341 295
0.026538454 0.68800002 -0.066346131 9.5803945e-39 342 295
0.028148014 0.69800001 -0.06731046 7.8286776e-39 343 295
0.029371841 0.69800001 -0.06731046 5.2500866e-39 344 295
0.030595668 0.69800001 -0.06731046 4.3284904e-39 345 295
0.031819493 0.69800001 -0.06731046 4.6079808e-39 346 295
0.03299598 0.69700003 -0.067214034 5.2533502e-39 347 295
0.034218054 0.69700003 -0.067214034 5.3466431e-39 348 295
0.035389278 0.69599998 -0.067117594 5.62323e-39 349 295
0.036504399 0.69400001 -0.066924736 5.9920153e-39 350 295
0.037721213 0.69400001 -0.066924736 6.3604391e-39 351 295
0.038938027 0.69400001 -0.066924736 6.6377378e-39 352 295
0.040154841 0.69400001 -0.066924736 6.7299335e-39 353 295
0.041312039 0.69300002 -0.066828303 7.0054427e-39 354 295
0.042527102 0.69300002 -0.066828303 7.0976384e-39 355 295
0.043742158 0.69300002 -0.066828303 7.2809408e-39 356 295
0.044957221 0.69300002 -0.066828303 7.1887438e-39 357 295
0.04617228 0.69300002 -0.066828303 7.554997e-39 358 295
0.047387339 0.69300002 -0.066828303 7.554997e-39 359 295
0.048602402 0.69300002 -0.066828303 7.6461038e-39 360 295
0.049817458 0.69300002 -0.066828303 7.6461038e-39 361 295
0.051032521 0.69300002 -0.066828303 7.555706e-39 362 295
0.05224758 0.69300002 -0.066828303 7.4631517e-39 363 295
0.053539783 0.69400001 -0.066924736 7.5549998e-39 364 295
0.054756597 0.69400001 -0.066924736 7.6471954e-39 365 295
0.056134716 0.69599998 -0.067117594 7.6464793e-39 366 295
0.05743745 0.69700003 -0.067214034 7.6464793e-39 367 295
0.05865952 0.69700003 -0.067214034 7.9230592e-39 368 295
0.05988159 0.69700003 -0.067214034 7.6468325e-39 369 295
0.061191335 0.69800001 -0.06731046 7.6478862e-39 370 295
0.062593997 0.69999999 -0.067503333 9.0308207e-39 371 295
0.063912503 0.70099998 -0.067599766 1.5668533e-38 372 295
-0.01686356 0.68699998 -0.067454241 1.9872035e-38 306 296
-0.015659019 0.68699998 -0.067454241 1.9134111e-38 307 296
0.0098607466 0.70300001 -0.069025226 7.5567822e-39 328 296
0.011045999 0.69999999 -0.068730667 7.5567822e-39 329 296
0.012168133 0.69400001 -0.068141542 7.0972586e-39 330 296
0.013384946 0.69400001 -0.068141542 6.9132275e-39 331 296
0.014580719 0.69300002 -0.068043359 6.9110793e-39 332 296
0.015750192 0.69099998 -0.067846984 6.7266866e-39 333 296
0.016961746 0.69099998 -0.067846984 7.1887438e-39 334 296
0.018146999 0.69 -0.0677488 7.6493632e-39 335 296
0.019300694 0.68800002 -0.067552425 7.651517e-39 336 296
0.020477179 0.68699998 -0.067454241 8.2043321e-39 337 296
0.021681719 0.68699998 -0.067454241 8.6649445e-39 338 296
0.022852944 0.68599999 -0.06735605 8.7571401e-39 339 296
0.024055731 0.68599999 -0.06735605 9.3084992e-39 340 296
0.025184879 0.68400002 -0.067159683 9.4928905e-39 341 296
0.02638416 0.68400002 -0.067159683 9.8602212e-39 342 296
0.027583439 0.68400002 -0.067159683 8.9386251e-39 343 296
0.029455997 0.69999999 -0.068730667 7.8290335e-39 344 296
0.030595668 0.69800001 -0.068534292 5.9851223e-39 345 296
0.031819493 0.69800001 -0.068534292 4.2373864e-39 346 296
0.033043321 0.69800001 -0.068534292 4.7905602e-39 347 296
0.034218054 0.69700003 -0.068436109 4.8845915e-39 348 296
0.035389278 0.69599998 -0.068337917 5.1611798e-39 349 296
0.036609598 0.69599998 -0.068337917 5.529605e-39 350 296
0.037721213 0.69400001 -0.068141542 5.7143564e-39 351 296
0.038938027 0.69400001 -0.068141542 6.1746059e-39 352 296
0.040154841 0.69400001 -0.068141542 6.2671602e-39 353 296
0.041371655 0.69400001 -0.068141542 5.9927314e-39 354 296
0.042527102 0.69300002 -0.068043359 6.1774827e-39 355 296
0.043742158 0.69300002 -0.068043359 6.9110821e-39 356 296
0.044957221 0.69300002 -0.068043359 6.9110821e-39 357 296
0.04617228 0.69300002 -0.068043359 7.0947447e-39 358 296
0.047387339 0.69300002 -0.068043359 7.1869403e-39 359 296
0.048602402 0.69300002 -0.068043359 7.1865746e-39 360 296
0.049817458 0.69300002 -0.068043359 7.1865746e-39 361 296
0.051032521 0.69300002 -0.068043359 7.1872935e-39 362 296
0.052322973 0.69400001 -0.068141542 7.1872935e-39 363 296
0.053539783 0.69400001 -0.068141542 7.0036281e-39 364 296
0.054756597 0.69400001 -0.068141542 6.9114324e-39 365 296
0.056134716 0.69599998 -0.068337917 7.0947419e-39 366 296
0.05743745 0.69700003 -0.068436109 7.0947419e-39 367 296
0.05865952 0.69700003 -0.068436109 7.3716847e-39 368 296
0.05988159 0.69700003 -0.068436109 7.7404672e-39 369 296
0.061191335 0.69800001 -0.068534292 8.8482273e-39 370 296
0.062683418 0.70099998 -0.068828844 1.0784336e-38 371 296
-0.018068098 0.68699998 -0.068658777 1.8506415e-38 305 297
-0.01686356 0.68699998 -0.068658777 2.0332301e-38 306 297
-0.015659019 0.68699998 -0.068658777 2.0240106e-38 307 297
0.011045999 0.69999999 -0.069957994 8.3843723e-39 329 297
0.012168133 0.69400001 -0.069358356 7.5553501e-39 330 297
0.01336566 0.69300002 -0.069258414 7.5553501e-39 331 297
0.014580719 0.69300002 -0.069258414 7.0947447e-39 332 297
0.015727401 0.69 -0.068958595 7.0025491e-39 333 297
0.016888106 0.68800002 -0.068758719 6.8185306e-39 334 297
0.0180944 0.68800002 -0.068758719 7.0029218e-39 335 297
0.019272638 0.68699998 -0.068658777 7.188755e-39 336 297
0.020477179 0.68699998 -0.068658777 7.8341244e-39 337 297
0.021650158 0.68599999 -0.068558842 8.3869283e-39 338 297
0.022786319 0.68400002 -0.068358958 8.6638753e-39 339 297
0.0239856 0.68400002 -0.068358958 8.8486099e-39 340 297
0.02514806 0.68300003 -0.068259016 9.0330011e-39 341 297
0.026345588 0.68300003 -0.068259016 9.3095712e-39 342 297
0.027543113 0.68300003 -0.068259016 9.6783551e-39 343 297
0.028740639 0.68300003 -0.068259016 9.5814735e-39 344 297
0.030683333 0.69999999 -0.069957994 8.0141478e-39 345 297
0.031910665 0.69999999 -0.069957994 5.709627e-39 346 297
0.033043321 0.69800001 -0.069758117 4.7873106e-39 347 297
0.034267146 0.69800001 -0.069758117 4.6987303e-39 348 297
0.035490975 0.69800001 -0.069758117 4.883123e-39 349 297
0.036609598 0.69599998 -0.069558233 5.436301e-39 350 297
0.037829921 0.69599998 -0.069558233 5.6206936e-39 351 297
0.039050236 0.69599998 -0.069558233 5.7136109e-39 352 297
0.040270556 0.69599998 -0.069558233 5.8980022e-39 353 297
0.041371655 0.69400001 -0.069358356 5.7157787e-39 354 297
0.042588469 0.69400001 -0.069358356 5.7157787e-39 355 297
0.043805279 0.69400001 -0.069358356 6.0816914e-39 356 297
0.045022093 0.69400001 -0.069358356 6.2657225e-39 357 297
0.046238903 0.69400001 -0.069358356 6.633419e-39 358 297
0.047455717 0.69400001 -0.069358356 6.633419e-39 359 297
0.048672531 0.69400001 -0.069358356 6.6337694e-39 360 297
0.049889345 0.69400001 -0.069358356 6.8181606e-39 361 297
0.051106159 0.69400001 -0.069358356 6.8185165e-39 362 297
0.052322973 0.69400001 -0.069358356 7.0025491e-39 363 297
0.053539783 0.69400001 -0.069358356 7.0950978e-39 364 297
0.054914396 0.69599998 -0.069558233 7.0950978e-39 365 297
0.056134716 0.69599998 -0.069558233 7.4627915e-39 366 297
0.05743745 0.69700003 -0.069658175 7.5549872e-39 367 297
0.05865952 0.69700003 -0.069658175 7.648252e-39 368 297
0.059967503 0.69800001 -0.069758117 8.2014258e-39 369 297
0.061366666 0.69999999 -0.069957994 1.0414827e-38 370 297
-0.018068098 0.68699998 -0.069863312 1.8139434e-38 305 298
-0.01686356 0.68699998 -0.069863312 2.0426655e-38 306 298
-0.015659019 0.68699998 -0.069863312 2.0149708e-38 307 298
-0.01434928 0.68199998 -0.069354847 1.876389e-38 308 298
-0.013153506 0.68199998 -0.069354847 1.7934129e-38 309 298
0.012168133 0.69400001 -0.07057517 8.844277e-39 330 298
0.01336566 0.69300002 -0.070473477 8.1989076e-39 331 298
0.014538639 0.69099998 -0.070270091 6.7295523e-39 332 298
0.015727401 0.69 -0.070168398 6.3611285e-39 333 298
0.016888106 0.68800002 -0.06996502 6.6355658e-39 334 298
0.018068098 0.68699998 -0.069863312 6.6355658e-39 335 298
0.019272638 0.68699998 -0.069863312 6.8206843e-39 336 298
0.020447372 0.68599999 -0.069761619 7.2813038e-39 337 298
0.02158704 0.68400002 -0.06955824 7.8344747e-39 338 298
0.022786319 0.68400002 -0.06955824 8.0192247e-39 339 298
0.023950534 0.68300003 -0.069456547 8.5723817e-39 340 298
0.02514806 0.68300003 -0.069456547 8.6645787e-39 341 298
0.026307013 0.68199998 -0.069354847 9.0329885e-39 342 298
0.027422134 0.68000001 -0.069151461 9.4014109e-39 343 298
0.028614398 0.68000001 -0.069151461 1.0043894e-38 344 298
0.035490975 0.69800001 -0.07098195 5.6181503e-39 349 298
0.036662199 0.69700003 -0.070880257 4.7001624e-39 350 298
0.037884273 0.69700003 -0.070880257 4.7001624e-39 351 298
0.039106347 0.69700003 -0.070880257 4.6094158e-39 352 298
0.040270556 0.69599998 -0.070778556 5.1625895e-39 353 298
0.041490879 0.69599998 -0.070778556 4.9782081e-39 354 298
0.042711195 0.69599998 -0.070778556 4.7941756e-39 355 298
0.043931518 0.69599998 -0.070778556 5.2530027e-39 356 298
0.045151837 0.69599998 -0.070778556 5.437394e-39 357 298
0.046372157 0.69599998 -0.070778556 5.7136109e-39 358 298
0.047455717 0.69400001 -0.07057517 5.8058065e-39 359 298
0.048672531 0.69400001 -0.07057517 5.7136081e-39 360 298
0.049889345 0.69400001 -0.07057517 5.9901964e-39 361 298
0.051106159 0.69400001 -0.07057517 5.9905523e-39 362 298
0.052322973 0.69400001 -0.07057517 6.4515291e-39 363 298
0.053694077 0.69599998 -0.070778556 6.6362735e-39 364 298
0.054993302 0.69700003 -0.070880257 6.7284705e-39 365 298
0.056215372 0.69700003 -0.070880257 7.2816373e-39 366 298
0.05743745 0.69700003 -0.070880257 8.0195624e-39 367 298
0.05865952 0.69700003 -0.070880257 9.1237492e-39 368 298
0.059967503 0.69800001 -0.07098195 1.0046064e-38 369 298
-0.018041799 0.68599999 -0.070964411 1.7864295e-38 305 299
-0.016789921 0.68400002 -0.070757523 2.0060383e-38 306 299
-0.015567848 0.68300003 -0.070654072 1.9322817e-38 307 299
-0.01434928 0.68199998 -0.070550621 1.9959168e-38 308 299
-0.013153506 0.68199998 -0.070550621 1.9221601e-38 309 299
-0.011957732 0.68199998 -0.070550621 1.5455315e-38 310 299
-0.010761959 0.68199998 -0.070550621 1.7483618e-38 311 299
0.012220734 0.69700003 -0.072102323 1.0778932e-38 330 299
0.01336566 0.69300002 -0.07168854 9.1197695e-39 331 299
0.014538639 0.69099998 -0.071481638 7.5571382e-39 332 299
0.015727401 0.69 -0.071378194 6.8192144e-39 333 299
0.016888106 0.68800002 -0.071171306 6.6359175e-39 334 299
0.018068098 0.68699998 -0.071067855 6.6359175e-39 335 299
0.019244585 0.68599999 -0.070964411 6.1778303e-39 336 299
0.020387759 0.68400002 -0.070757523 6.5466114e-39 337 299
0.02158704 0.68400002 -0.070757523 6.455506e-39 338 299
0.022753006 0.68300003 -0.070654072 6.8246472e-39 339 299
0.023950534 0.68300003 -0.070654072 8.4801987e-39 340 299
0.025111238 0.68199998 -0.070550621 8.4801987e-39 341 299
0.026229866 0.68000001 -0.070343733 8.6652948e-39 342 299
0.027422134 0.68000001 -0.070343733 8.7574904e-39 343 299
0.028572321 0.67900002 -0.070240289 9.3095712e-39 344 299
0.029762832 0.67900002 -0.070240289 9.5861595e-39 345 299
0.042711195 0.69599998 -0.071998879 6.078432e-39 355 299
0.043931518 0.69599998 -0.071998879 5.8958358e-39 356 299
0.045151837 0.69599998 -0.071998879 6.3568125e-39 357 299
0.046372157 0.69599998 -0.071998879 7.0007344e-39 358 299
0.047592476 0.69599998 -0.071998879 7.1851256e-39 359 299
0.048812799 0.69599998 -0.071998879 7.0003785e-39 360 299
0.050033119 0.69599998 -0.071998879 7.2773241e-39 361 299
0.051253434 0.69599998 -0.071998879 8.0141604e-39 362 299
0.052473757 0.69599998 -0.071998879 8.1063561e-39 363 299
-0.018041799 0.68599999 -0.072167195 1.7589503e-38 305 300
-0.016765373 0.68300003 -0.071851604 1.9599746e-38 306 300
-0.015567848 0.68300003 -0.071851604 1.9414994e-38 307 300
-0.01434928 0.68199998 -0.071746394 2.1250237e-38 308 300
-0.013153506 0.68199998 -0.071746394 2.0512678e-38 309 300
-0.011922667 0.68000001 -0.071535997 1.802884e-38 310 300
-0.010714619 0.67900002 -0.071430802 1.802884e-38 311 300
-0.009524107 0.67900002 -0.071430802 1.3540102e-38 312 300
0.013384946 0.69400001 -0.073008798 1.0778566e-38 331 300
0.014580719 0.69300002 -0.072903603 8.5691293e-39 332 300
0.015727401 0.69 -0.072587997 7.4631419e-39 333 300
0.016888106 0.68800002 -0.0723776 6.1792498e-39 334 300
0.018068098 0.68699998 -0.07227239 5.9030216e-39 335 300
0.019244585 0.68599999 -0.072167195 6.3611285e-39 336 300
0.020387759 0.68400002 -0.071956798 6.4533255e-39 337 300
0.02155548 0.68300003 -0.071851604 6.7292048e-39 338 300
0.022753006 0.68300003 -0.071851604 6.8214004e-39 339 300
0.023915464 0.68199998 -0.071746394 7.8337573e-39 340 300
0.025037598 0.68000001 -0.071535997 8.0181499e-39 341 300
0.026229866 0.68000001 -0.071535997 8.7553408e-39 342 300
0.027381808 0.67900002 -0.071430802 8.9397335e-39 343 300
0.028572321 0.67900002 -0.071430802 9.3092181e-39 344 300
0.029718997 0.67799997 -0.0713256 9.3092181e-39 345 300
0.030907756 0.67799997 -0.0713256 8.7585498e-39 346 300
-0.016765373 0.68300003 -0.073049128 1.9235638e-38 306 301
-0.015567848 0.68300003 -0.073049128 1.9051607e-38 307 301
-0.01434928 0.68199998 -0.072942168 2.0515906e-38 308 301
-0.013153506 0.68199998 -0.072942168 2.0238965e-38 309 301
-0.011922667 0.68000001 -0.072728261 1.9776918e-38 310 301
-0.010714619 0.67900002 -0.072621316 1.8762422e-38 311 301
-0.009524107 0.67900002 -0.072621316 1.5273436e-38 312 301
-0.0083335936 0.67900002 -0.072621316 1.8224055e-38 313 301
0.015750192 0.69099998 -0.073904753 9.0275711e-39 333 301
0.016888106 0.68800002 -0.073583893 8.199258e-39 334 301
0.0180944 0.68800002 -0.073583893 8.0148667e-39 335 301
0.019244585 0.68599999 -0.073369987 7.0032511e-39 336 301
0.020387759 0.68400002 -0.073156074 7.0032511e-39 337 301
0.02155548 0.68300003 -0.073049128 6.3611453e-39 338 301
0.022753006 0.68300003 -0.073049128 6.5455366e-39 339 301
0.023915464 0.68199998 -0.072942168 6.455506e-39 340 301
0.025037598 0.68000001 -0.072728261 7.0086783e-39 341 301
0.026191294 0.67900002 -0.072621316 8.1121392e-39 342 301
0.027341479 0.67799997 -0.072514355 8.2965305e-39 343 301
0.028530238 0.67799997 -0.072514355 8.757496e-39 344 301
0.029631332 0.676 -0.072300449 8.8496917e-39 345 301
0.030816587 0.676 -0.072300449 9.3095684e-39 346 301
-0.0180944 0.68800002 -0.074790187 1.8144489e-38 305 302
-0.016789921 0.68400002 -0.074355356 1.8870128e-38 306 302
-0.015567848 0.68300003 -0.074246652 1.8132204e-38 307 302
-0.01434928 0.68199998 -0.074137948 2.0055658e-38 308 302
-0.013153506 0.68199998 -0.074137948 1.9871268e-38 309 302
-0.011922667 0.68000001 -0.073920533 2.0605231e-38 310 302
-0.010714619 0.67900002 -0.073811822 1.9867677e-38 311 302
-0.009524107 0.67900002 -0.073811822 1.7844444e-38 312 302
-0.0083213197 0.67799997 -0.073703118 1.7476022e-38 313 302
-0.0071325595 0.67799997 -0.073703118 1.4276589e-38 314 302
0.0169372 0.69 -0.075007595 9.304881e-39 334 302
0.0180944 0.68800002 -0.074790187 8.2910878e-39 335 302
0.019244585 0.68599999 -0.074572764 7.095081e-39 336 302
0.020387759 0.68400002 -0.074355356 7.187278e-39 337 302
0.02155548 0.68300003 -0.074246652 6.8192298e-39 338 302
0.022719691 0.68199998 -0.074137948 6.9117856e-39 339 302
0.023845334 0.68000001 -0.073920533 6.7292048e-39 340 302
0.025000781 0.67900002 -0.073811822 6.913596e-39 341 302
0.026152719 0.67799997 -0.073703118 7.4667726e-39 342 302
0.027260827 0.676 -0.073485702 8.0195877e-39 343 302
0.028446076 0.676 -0.073485702 8.5723929e-39 344 302
0.0295875 0.67500001 -0.073376998 8.7571429e-39 345 302
0.030771 0.67500001 -0.073376998 9.3088649e-39 346 302
0.031954501 0.67500001 -0.073376998 9.3088649e-39 347 302
-0.0180944 0.68800002 -0.075996481 1.796227e-38 305 303
-0.016789921 0.68400002 -0.075554639 1.822802e-38 306 303
-0.015567848 0.68300003 -0.075444184 1.7766683e-38 307 303
-0.01434928 0.68199998 -0.075333714 1.9872007e-38 308 303
-0.013114933 0.68000001 -0.075112797 1.9595779e-38 309 303
-0.011905133 0.67900002 -0.075002335 2.0144977e-38 310 303
-0.010698839 0.67799997 -0.074891873 1.9960589e-38 311 303
-0.0095100794 0.67799997 -0.074891873 1.9684006e-38 312 303
-0.0083213197 0.67799997 -0.074891873 1.8762064e-38 313 303
-0.0071325595 0.67799997 -0.074891873 1.656201e-38 314 303
0.019244585 0.68599999 -0.075775556 8.2921767e-39 336 303
0.020387759 0.68400002 -0.075554639 7.4624174e-39 337 303
0.02155548 0.68300003 -0.075444184 7.1854942e-39 338 303
0.022719691 0.68199998 -0.075333714 7.3698868e-39 339 303
0.023810266 0.67900002 -0.075002335 6.6362903e-39 340 303
0.024963958 0.67799997 -0.074891873 6.7284859e-39 341 303
0.026075572 0.676 -0.074670963 6.9139632e-39 342 303
0.027220501 0.67500001 -0.074560501 7.2831044e-39 343 303
0.028404001 0.67500001 -0.074560501 8.0188688e-39 344 303
0.0295875 0.67500001 -0.074560501 8.5720426e-39 345 303
0.030725412 0.67400002 -0.074450038 9.0322851e-39 346 303
0.03190716 0.67400002 -0.074450038 9.2163162e-39 347 303
-0.016789921 0.68400002 -0.076753922 1.8047958e-38 306 304
-0.015567848 0.68300003 -0.076641709 1.7034166e-38 307 304
-0.01434928 0.68199998 -0.076529488 1.9045139e-38 308 304
-0.013114933 0.68000001 -0.076305062 1.9137336e-38 309 304
-0.011905133 0.67900002 -0.076192856 1.9962024e-38 310 304
-0.010698839 0.67799997 -0.076080635 1.9777276e-38 311 304
-0.0094820261 0.676 -0.075856209 2.0144977e-38 312 304
-0.0082967728 0.676 -0.075856209 1.9683647e-38 313 304
-0.0071115191 0.676 -0.075856209 1.8581271e-38 314 304
-0.0059262668 0.676 -0.075856209 1.765932e-38 315 304
0.020387759 0.68400002 -0.076753922 8.8431826e-39 337 304
0.02155548 0.68300003 -0.076641709 7.2783961e-39 338 304
0.022719691 0.68199998 -0.076529488 7.2783961e-39 339 304
0.023810266 0.67900002 -0.076192856 6.5437247e-39 340 304
0.024963958 0.67799997 -0.076080635 6.9121485e-39 341 304
0.026075572 0.676 -0.075856209 6.912524e-39 342 304
0.027220501 0.67500001 -0.075743996 7.0969139e-39 343 304
0.028404001 0.67500001 -0.075743996 7.3753029e-39 344 304
0.029543666 0.67400002 -0.07563179 7.9284766e-39 345 304
0.030634239 0.67199999 -0.075407356 8.9397335e-39 346 304
0.031812478 0.67199999 -0.075407356 9.0319291e-39 347 304
0.032941625 0.671 -0.075295143 9.583654e-39 348 304
0.034118112 0.671 -0.075295143 9.583654e-39 349 304
-0.015567848 0.68300003 -0.077839233 1.6393125e-38 307 305
-0.014307199 0.68000001 -0.077497333 1.8312632e-38 308 305
-0.013095647 0.67900002 -0.077383369 1.8220437e-38 309 305
-0.011887599 0.67799997 -0.077269398 1.9410663e-38 310 305
-0.01066728 0.676 -0.077041462 1.9318467e-38 311 305
-0.0094820261 0.676 -0.077041462 1.9592888e-38 312 305
-0.0082967728 0.676 -0.077041462 1.9592888e-38 313 305
-0.0071010003 0.67500001 -0.076927498 1.9226625e-38 314 305
-0.0058911997 0.67199999 -0.076585598 1.8949681e-38 315 305
-0.0047129598 0.67199999 -0.076585598 1.8033159e-38 316 305
0.022653066 0.68000001 -0.077497333 8.0145108e-39 339 305
0.023810266 0.67900002 -0.077383369 6.4525983e-39 340 305
0.024963958 0.67799997 -0.077269398 6.6369909e-39 341 305
0.026075572 0.676 -0.077041462 6.728839e-39 342 305
0.027220501 0.67500001 -0.076927498 6.8210347e-39 343 305
0.02836192 0.67400002 -0.076813534 7.3734994e-39 344 305
0.029455997 0.67199999 -0.076585598 8.2036188e-39 345 305
0.030634239 0.67199999 -0.076585598 8.8475379e-39 346 305
0.031765141 0.671 -0.076471634 9.216319e-39 347 305
0.032892533 0.67000002 -0.076357663 9.3081433e-39 348 305
0.034067266 0.67000002 -0.076357663 9.2159476e-39 349 305
0.035136797 0.66799998 -0.076129727 8.7549751e-39 350 305
0.036308024 0.66799998 -0.076129727 9.4003445e-39 351 305
